-39.519020,1.631126,-68.539440,-0.520277,0.615883,0.591608
-39.546620,1.440924,-68.496710,0.194786,-0.799213,0.568609
-39.552550,1.435313,-68.551730,0.140043,-0.989137,-0.044672
-39.598880,1.510404,-68.545590,-0.631929,-0.771822,-0.070409
-39.551870,1.614325,-68.522210,-0.964653,0.199842,0.171778
-39.515870,1.616687,-68.594540,-0.344536,0.235181,-0.908837
-39.570000,1.546420,-68.611950,-0.510918,-0.504266,-0.696188
-39.499310,1.608734,-68.610270,-0.042165,0.118305,-0.992082
-39.466290,1.556839,-68.642110,0.289752,-0.435010,-0.852532
-39.441620,1.550424,-68.634990,0.405926,-0.494003,-0.768886
-39.433170,1.546208,-68.631290,0.427303,-0.527464,-0.734299
-39.424740,1.559333,-68.621150,0.556814,-0.419204,-0.717096
-39.433490,1.602726,-68.593090,0.776611,0.037585,-0.628858
-39.427060,1.603689,-68.583690,0.848661,0.048490,-0.526709
-39.431720,1.608646,-68.580890,0.842354,0.115034,-0.526504
-39.416620,1.602444,-68.566390,0.958499,0.032935,-0.283187
-39.419150,1.608473,-68.528660,0.956206,0.117976,0.267865
-39.417620,1.595353,-68.583270,0.882593,-0.054397,-0.466981
-39.483780,1.632390,-68.562610,0.514027,0.584781,-0.627542
-39.431870,1.617227,-68.554330,0.915586,0.244382,-0.319343
-39.426890,1.612147,-68.516530,0.924293,0.163442,0.344918
-39.426070,1.612754,-68.557330,0.954539,0.172591,-0.243039
-39.420100,1.608798,-68.553540,0.975919,0.115596,-0.184984
-39.422770,1.609315,-68.561330,0.953571,0.123269,-0.274787
-39.437420,1.611717,-68.582170,0.823556,0.161347,-0.543805
-39.438790,1.611267,-68.584670,0.808764,0.156100,-0.567039
-39.437940,1.606695,-68.591670,0.772241,0.091860,-0.628654
-39.440650,1.606456,-68.594600,0.742038,0.089397,-0.664370
-39.441500,1.605428,-68.596810,0.724341,0.075804,-0.685262
-39.440890,1.605679,-68.595930,0.731304,0.078757,-0.677489
-39.442860,1.605791,-68.597430,0.714871,0.081281,-0.694517
-39.442210,1.605130,-68.597820,0.709919,0.071308,-0.700664
-39.441940,1.605981,-68.596400,0.730497,0.084356,-0.677687
-39.420330,1.609971,-68.545120,0.990872,0.134771,-0.002991
-39.410610,1.597913,-68.517480,0.947367,-0.023987,0.319249
-39.416160,1.602719,-68.564260,0.954704,0.034614,-0.295536
-39.431510,1.612223,-68.572310,0.852303,0.164666,-0.496453
-39.424040,1.601402,-68.583290,0.848059,0.017969,-0.529597
-39.505440,1.597138,-68.621130,-0.164702,-0.034728,-0.985732
-39.507390,1.595983,-68.621750,-0.124634,-0.044915,-0.991186
-39.497330,1.599630,-68.620010,0.007208,0.000606,-0.999974
-39.499200,1.599332,-68.620090,0.037315,0.004128,-0.999295
-39.457360,1.596264,-68.616710,0.463024,-0.041712,-0.885363
-39.415390,1.596547,-68.577190,0.904828,-0.041575,-0.423743
-39.410650,1.600765,-68.531230,0.991971,0.009802,0.126089
-39.413640,1.600320,-68.564020,0.938047,0.004976,-0.346473
-39.422680,1.607104,-68.568340,0.938385,0.094201,-0.332506
-39.420160,1.603183,-68.572890,0.933555,0.043759,-0.355753
-39.416150,1.602509,-68.564880,0.947632,0.031669,-0.317791
-39.411520,1.599133,-68.560720,0.975784,-0.009685,-0.218523
-39.441730,1.615475,-68.579370,0.781707,0.214678,-0.585532
-39.485130,1.603719,-68.616220,0.100047,0.047940,-0.993827
-39.489440,1.600296,-68.619720,0.032930,0.004048,-0.999450
-39.538110,1.604582,-68.598300,-0.617104,0.058721,-0.784687
-39.568290,1.602168,-68.534930,-0.998364,0.027330,0.050229
-39.537570,1.601503,-68.476340,-0.645567,0.020522,0.763428
-39.489270,1.613513,-68.474160,0.065897,0.185039,0.980519
-39.493790,1.597446,-68.456790,-0.027366,-0.031086,0.999142
-39.498580,1.602918,-68.462300,-0.108590,0.036898,0.993402
-39.493390,1.606805,-68.466000,-0.058105,0.088227,0.994404
-39.493910,1.606218,-68.465390,-0.065003,0.080330,0.994647
-39.547870,1.571836,-68.458490,-0.569046,-0.305121,0.763602
-39.515020,1.611120,-68.603240,-0.370763,0.148503,-0.916778
-39.491890,1.608629,-68.610970,0.014254,0.113969,-0.993382
-39.454540,1.611574,-68.597400,0.486261,0.155588,-0.859851
-39.493790,1.607452,-68.612250,-0.043232,0.096989,-0.994346
-39.490390,1.603282,-68.616810,0.001158,0.041591,-0.999134
-39.490150,1.606041,-68.613910,-0.056144,0.079333,-0.995266
-39.496600,1.593241,-68.625560,-0.064474,-0.080830,-0.994641
-39.497800,1.592409,-68.626110,-0.074617,-0.090347,-0.993111
-39.494880,1.595748,-68.623620,-0.048801,-0.051535,-0.997478
-39.492820,1.603002,-68.617050,0.008348,0.038991,-0.999205
-39.481360,1.602139,-68.617480,0.131554,0.027158,-0.990937
-39.523910,1.594743,-68.617550,-0.363793,-0.062646,-0.929371
-39.556790,1.602011,-68.580900,-0.856518,0.025365,-0.515493
-39.552950,1.611252,-68.566020,-0.907628,0.150402,-0.391906
-39.561420,1.606217,-68.559720,-0.961146,0.080267,-0.264112
-39.557970,1.602116,-68.500270,-0.862724,0.026625,0.504973
-39.488690,1.604203,-68.463150,0.048592,0.054073,0.997354
-39.427700,1.595839,-68.482890,0.749648,-0.050357,0.659918
-39.417140,1.607387,-68.536530,0.995230,0.097229,-0.008071
-39.438990,1.598992,-68.476040,0.638866,-0.012302,0.769220
-39.509180,1.596067,-68.457730,-0.239350,-0.047729,0.969760
-39.116620,1.597662,-67.834120,-0.136845,-0.028654,0.990178
-38.665480,1.596647,-66.619440,-0.120916,-0.040603,0.991832
-38.821690,1.597764,-65.228860,-0.123065,-0.027381,0.992021
-38.989720,1.598507,-63.862860,-0.132686,-0.018385,0.990988
-39.267250,1.597933,-62.543560,-0.225994,-0.025380,0.973798
-39.592610,1.598821,-61.207600,-0.352622,-0.014555,0.935653
-40.391940,1.596480,-60.149990,-0.729661,-0.042531,0.682485
-41.030660,1.596752,-59.010600,-0.507945,-0.039424,0.860487
-41.409260,1.598492,-57.738680,-0.923229,-0.018548,0.383802
-42.491200,1.598457,-56.941020,-0.996520,-0.018998,0.081166
-43.746190,1.610710,-56.624450,-0.776178,0.144443,-0.613746
-45.042570,1.595983,-56.331340,-0.992043,-0.047983,0.116401
-46.198130,1.595050,-55.647760,-0.997833,-0.059807,0.027447
-47.500590,1.595776,-55.231860,-0.998696,-0.051053,-0.000748
-48.830190,1.595494,-54.998190,-0.998331,-0.054579,-0.018887
-50.189270,1.595690,-54.777980,-0.998295,-0.052260,-0.026009
-51.529690,1.598188,-54.649270,-0.998148,-0.022199,-0.056641
-52.896130,1.598694,-54.483640,-0.998431,-0.016055,-0.053643
-54.239550,1.598310,-54.359970,-0.997948,-0.020707,-0.060595
-55.587560,1.599381,-54.321580,-0.999153,-0.007575,0.040436
-56.958960,1.598690,-54.197990,-0.999550,-0.014695,-0.026157
-58.306200,1.598744,-54.172780,-0.997599,-0.015452,-0.067507
-59.673450,1.599962,-54.257740,-0.946214,-0.000400,-0.323543
-61.012410,1.599269,-54.328400,-0.999041,-0.008761,0.042910
-62.369940,1.598620,-54.109960,-0.977545,-0.017009,0.210042
-63.691860,1.599464,-53.959320,-0.954533,-0.006635,-0.298031
-64.897860,1.600822,-54.562160,-0.909533,0.011100,-0.415484
-66.170440,1.600955,-54.502750,-0.814176,0.012151,0.580491
-67.290380,1.599135,-53.878590,-0.925190,-0.009333,-0.379390
-68.086700,1.594146,-54.282910,-0.935160,-0.069757,-0.347289
-68.927210,1.595355,-53.733350,-0.965838,-0.056098,0.253001
-70.002660,1.595479,-52.877010,-0.945803,-0.054570,0.320124
-71.254590,1.595007,-52.428940,-0.989798,-0.060251,0.129112
-72.622860,1.596080,-52.367840,-0.990247,-0.047197,0.131088
-73.392590,1.601022,-51.439900,-0.156930,0.012802,0.987527
-73.583380,1.615153,-50.169280,0.000765,-0.006386,0.999979
-74.100960,1.596683,-49.351860,0.073818,-0.040634,0.996444
-74.299610,1.595215,-48.319920,0.056441,-0.057886,0.996727
-74.318000,1.598346,-46.962280,-0.031298,-0.020259,0.999305
-74.356380,1.598327,-45.585910,-0.016463,-0.020567,0.999653
-74.351560,1.596747,-44.234830,0.003337,-0.039673,0.999207
-74.300400,1.597115,-42.863010,-0.003091,-0.035295,0.999372
-74.301220,1.597545,-41.721120,-0.012187,-0.030098,0.999473
-74.294440,1.596827,-40.669980,0.057711,-0.038772,0.997580
-74.290040,1.596048,-39.774750,0.102947,-0.047982,0.993529
-74.286630,1.594919,-38.904580,0.151724,-0.061473,0.986509
-74.285790,1.594868,-38.069300,0.163457,-0.062721,0.984555
-74.285610,1.594447,-37.416260,0.164781,-0.067483,0.984019
-74.303550,1.603030,-36.674060,-0.061480,0.037976,0.997386
-74.296980,1.602582,-35.902910,0.012609,0.032377,0.999396
-74.291010,1.602376,-35.139510,0.077998,0.030038,0.996501
-74.289730,1.599901,-34.402430,0.090382,-0.001089,0.995907
-74.293010,1.603202,-33.643770,0.050301,0.040767,0.997902
-74.219700,1.602079,-32.726770,0.051818,0.027213,0.998286
-73.688000,1.603720,-31.543060,0.033507,0.047795,0.998295
-72.841000,1.602427,-30.484820,0.345950,0.031767,0.937715
-71.608050,1.599345,-29.950840,0.829525,-0.008091,0.558411
-70.255220,1.595441,-30.175370,0.987539,-0.055202,0.147375
-69.004900,1.594712,-30.610500,0.994432,-0.063796,0.083872
-68.395180,1.594943,-30.623740,0.997072,-0.061060,-0.046036
-67.368580,1.592338,-30.619520,0.995805,-0.091240,0.006958
-66.003010,1.594307,-30.618000,0.997335,-0.068468,0.025202
-64.631690,1.595483,-30.614760,0.996512,-0.054662,0.063057
-63.298690,1.594583,-30.403050,0.823844,-0.064130,0.563178
-62.885230,1.599118,-30.380030,0.258705,-0.010900,0.965895
-62.818890,1.595842,-30.402770,0.724896,-0.049877,0.687050
-61.770070,1.596132,-30.603560,0.982291,-0.046991,0.181375
-60.538610,1.596326,-30.607460,0.990235,-0.044662,0.132058
-59.179030,1.597211,-30.608050,0.990253,-0.034107,0.135042
-57.840480,1.599139,-30.606340,0.983828,-0.010425,0.178815
-56.521170,1.604908,-30.614230,0.996498,0.069386,-0.046650
-55.212110,1.601897,-30.607060,0.983311,0.024165,0.180323
-53.826440,1.603806,-30.617680,0.996977,0.049153,0.060176
-52.487330,1.604573,-30.619320,0.998285,0.058395,-0.004165
-51.178410,1.605832,-30.617330,0.996463,0.075134,0.037632
-49.850950,1.607605,-30.617590,0.994921,0.099733,-0.013622
-49.329090,1.627306,-30.606980,0.718895,0.564497,-0.405626
-49.310930,1.618387,-30.606380,0.844653,0.398229,-0.357736
-49.159630,1.591393,-30.606570,0.982189,-0.101948,0.157835
-47.944480,1.600840,-30.611080,0.983957,0.013496,0.177892
-46.682240,1.599980,-30.619100,0.999174,0.000508,0.040643
-45.423510,1.598678,-30.619780,0.999434,-0.015637,0.029795
-44.192980,1.598024,-30.619380,0.999189,-0.023682,0.032562
-42.938100,1.598760,-30.619610,0.999347,-0.014581,0.033064
-41.707990,1.599494,-30.620020,0.999184,-0.005011,0.040066
-40.452240,1.600236,-30.620400,0.999463,0.004042,0.032506
-39.219480,1.599935,-30.619870,0.999704,-0.000304,0.024340
-37.985640,1.599377,-30.617820,0.998886,-0.007296,0.046611
-36.723740,1.602979,-30.614990,0.995677,0.038097,0.084715
-35.462920,1.603354,-30.614860,0.995155,0.042987,0.088426
-34.150750,1.601221,-30.605580,0.978883,0.015786,0.203809
-32.844410,1.597688,-30.608240,0.986421,-0.027920,0.161845
-31.519070,1.596941,-30.603740,0.975264,-0.036790,0.217959
-30.687020,1.599622,-30.573360,0.810761,-0.004433,0.585361
-30.724990,1.600469,-30.544470,0.368637,0.005916,0.929555
-30.712680,1.610278,-30.563040,0.550453,0.137107,0.823531
-30.710920,1.610732,-30.565070,0.542970,0.146204,0.826927
-30.709060,1.609487,-30.564620,0.547653,0.129668,0.826597
-30.708370,1.609169,-30.564690,0.559360,0.124721,0.819489
-30.708350,1.609378,-30.565030,0.557706,0.128096,0.820095
-30.707600,1.608474,-30.564270,0.560941,0.115398,0.819773
-30.707850,1.608854,-30.564640,0.559193,0.120885,0.820177
-30.708450,1.610951,-30.567470,0.563676,0.151440,0.811995
-30.709010,1.610937,-30.566970,0.557525,0.150932,0.816324
-30.706370,1.609596,-30.567100,0.582546,0.132054,0.801999
-30.699080,1.599654,-30.559570,0.598805,0.000897,0.800895
-30.707070,1.603960,-30.558370,0.521394,0.055778,0.851491
-30.708940,1.610718,-30.566670,0.582349,0.145170,0.799872
-30.778760,1.601252,-30.544040,-0.341288,0.015988,0.939823
-30.802320,1.611243,-30.571390,-0.792153,0.158574,0.589363
-30.679530,1.603514,-30.597840,0.937603,0.047134,0.344499
-29.906860,1.597695,-30.610330,0.987460,-0.027064,0.155532
-28.635500,1.594670,-30.614730,0.984961,-0.057465,0.162943
-27.381540,1.595047,-30.618460,0.994236,-0.056167,0.091322
-26.220660,1.600084,-30.627510,0.998273,0.014524,0.056924
-25.035910,1.597775,-30.622390,0.994871,-0.017013,0.099714
-23.857560,1.600206,-30.596550,0.883770,0.024085,0.467302
-23.853340,1.600219,-30.602750,0.944252,0.011519,0.329022
-22.899690,1.600561,-30.623680,0.999898,0.009198,0.010975
-21.875000,1.599730,-30.630210,0.997037,-0.001605,-0.076904
-20.894330,1.598866,-30.630490,0.995885,-0.012833,-0.089711
-19.873710,1.596990,-30.628490,0.997617,-0.035366,-0.059246
-18.719820,1.597858,-30.626490,0.999657,-0.023253,-0.012053
-17.575870,1.599989,-30.625280,0.999990,0.002432,-0.003904
-16.424810,1.599903,-30.625810,0.999978,0.002768,0.006109
-15.237660,1.599568,-30.623660,0.999757,-0.002339,0.021933
-14.055260,1.598414,-30.622760,0.999229,-0.016274,0.035740
-12.910060,1.596130,-30.638110,0.987273,-0.044222,-0.152764
-11.935260,1.594889,-30.652910,0.940289,-0.059516,-0.335133
-11.124050,1.594581,-30.667780,0.854640,-0.063291,-0.515348
-10.709880,1.594941,-30.661220,0.894292,-0.059408,-0.443522
-9.593085,1.595630,-30.659430,0.905389,-0.051009,-0.421509
-8.619111,1.596398,-30.662940,0.890205,-0.041243,-0.453690
-7.734332,1.592788,-30.751680,0.878005,-0.085346,-0.470981
-6.722945,1.593140,-31.280100,0.617488,-0.081765,-0.782319
-6.076675,1.595127,-32.099100,0.034154,-0.059313,-0.997655
-5.746713,1.598504,-32.997780,0.035122,-0.018352,-0.999215
-5.637182,1.596560,-34.338120,0.053603,-0.041683,-0.997692
-5.575989,1.598496,-35.684840,0.027858,-0.018122,-0.999448
-5.536320,1.597837,-37.061860,0.031126,-0.026306,-0.999169
-5.483911,1.597768,-38.410850,0.050215,-0.027220,-0.998367
-5.526419,1.602077,-39.805500,-0.182933,0.026275,-0.982774
-5.682101,1.601401,-41.198510,0.037693,0.018156,-0.999125
-5.651496,1.600901,-42.547560,-0.015553,0.012435,-0.999802
-5.730929,1.602082,-43.930740,-0.380018,0.019808,-0.924767
-5.713366,1.602206,-44.875620,-0.136379,0.028220,-0.990255
-5.720457,1.603991,-45.717430,-0.238210,0.050925,-0.969878
-5.762364,1.600193,-45.910940,-0.782756,0.002101,-0.622325
-5.738082,1.599543,-46.053310,-0.475674,-0.006091,-0.879601
-5.702965,1.602407,-46.893960,-0.008628,0.030730,-0.999490
-5.636497,1.601978,-48.045260,0.118417,0.025538,-0.992636
-5.506373,1.602795,-49.413650,0.088711,0.036283,-0.995397
-5.448888,1.602220,-50.750190,-0.188928,0.030342,-0.981522
-5.854543,1.592472,-50.927670,-0.825101,-0.089123,-0.557912
-7.076917,1.592569,-51.504490,-0.796992,-0.087531,-0.597614
-8.385116,1.591462,-51.816520,-0.924989,-0.099291,-0.366791
-9.710571,1.591513,-52.118880,-0.860071,-0.100372,-0.500204
-10.778230,1.594196,-52.928790,-0.800759,-0.068373,-0.595072
-11.824060,1.595227,-53.320320,-0.997972,-0.057558,0.027192
-12.432100,1.594342,-53.355510,-0.837352,-0.066893,-0.542556
-13.619900,1.597546,-54.047950,-0.711523,-0.026074,-0.702179
-14.837420,1.595500,-54.615430,-0.927624,-0.043515,-0.370972
-16.171010,1.595659,-54.576660,-0.998764,-0.049537,-0.004147
-17.583980,1.597443,-54.381840,-0.991432,-0.029561,-0.127232
-19.000600,1.598601,-54.540990,-0.990851,-0.015674,-0.134052
-20.345550,1.599962,-54.597580,-0.999841,0.003180,-0.017524
-21.694890,1.600422,-54.602090,-0.999756,0.007173,0.020915
-23.066910,1.603168,-54.537380,-0.993777,0.040608,0.103728
-24.418870,1.599881,-54.503620,-0.999500,-0.000390,0.031625
-25.794030,1.600509,-54.529240,-0.988453,0.008639,-0.151279
-27.104440,1.601578,-54.819960,-0.997469,0.023328,-0.067176
-28.145080,1.621413,-54.688660,-0.841907,0.339703,0.419279
-28.128120,1.628633,-54.708630,-0.715345,0.575288,0.396643
-28.775130,1.589836,-54.609840,-0.992794,-0.113528,0.038370
-30.108680,1.595164,-54.661570,-0.986175,-0.054774,-0.156393
-31.473380,1.597173,-54.821730,-0.995658,-0.029766,-0.088202
-32.873020,1.596962,-54.935480,-0.992436,-0.031680,-0.118608
-34.242540,1.598670,-55.061530,-0.995772,-0.011982,-0.091078
-35.581170,1.606103,-55.067940,-0.984495,0.079432,0.156400
-35.670620,1.632899,-55.048970,-0.234061,0.648176,0.724626
-35.665450,1.614213,-54.610280,-0.353754,0.196793,0.914402
-35.719920,1.584444,-54.766450,-0.591451,-0.175393,-0.787034
-36.402620,1.591657,-55.754990,-0.517450,-0.096308,-0.850276
-37.006030,1.603602,-56.371520,-0.688646,0.047359,-0.723549
-37.016410,1.601609,-56.385380,-0.659795,0.023226,-0.751087
-37.874770,1.601209,-57.223710,-0.636701,0.015346,-0.770959
-38.842580,1.600452,-58.155220,-0.493791,0.006276,-0.869558
-39.024890,1.600311,-58.574510,0.335384,0.009812,-0.942030
-38.762490,1.605016,-59.830730,0.507397,0.066078,-0.859175
-38.322360,1.605418,-61.100270,0.626768,0.071241,-0.775942
-38.184990,1.597297,-61.352130,0.683490,-0.031559,-0.729277
-38.830480,1.595330,-62.212130,-0.000551,-0.055604,-0.998453
-39.643360,1.600583,-63.274780,0.074128,0.009599,-0.997203
-39.971870,1.598773,-64.599330,0.037067,-0.013766,-0.999218
-40.213150,1.601704,-65.925440,0.002266,0.028038,-0.999604
-40.503560,1.602805,-67.268890,0.061787,0.041323,-0.997234
-40.805380,1.607176,-68.494670,-0.574751,0.094036,-0.812908
-40.812370,1.619587,-68.458870,-0.837427,0.284506,-0.466661
-40.822270,1.602977,-68.484000,-0.792981,0.037647,-0.608082
-40.835330,1.598476,-68.470470,-0.899675,-0.018381,-0.436174
-40.724940,1.599341,-68.509520,0.514077,-0.004406,-0.857733
-40.689290,1.607702,-68.449550,0.985933,0.101285,-0.132955
-40.702420,1.611823,-68.470910,0.858175,0.158736,-0.488199
-40.685500,1.600212,-68.464850,0.942108,0.002776,-0.335299
-40.672350,1.590000,-68.428240,0.985266,-0.117219,0.124543
-40.673850,1.591893,-68.427500,0.985359,-0.095603,0.141164
-40.688310,1.597341,-68.396360,0.867371,-0.032462,0.496602
-40.678170,1.596080,-68.421290,0.979964,-0.047580,0.193410
-40.679710,1.597100,-68.455280,0.973214,-0.035429,-0.227156
-40.689800,1.601751,-68.471150,0.915893,0.022794,-0.400774
-40.702680,1.605867,-68.483600,0.825241,0.079025,-0.559224
-40.703920,1.606835,-68.483450,0.826300,0.093107,-0.555481
-40.745460,1.602208,-68.513610,0.294548,0.033372,-0.955054
-40.821410,1.599649,-68.490100,-0.746925,-0.004324,-0.664895
-40.732340,1.598260,-68.513750,0.400566,-0.019469,-0.916062
-40.673420,1.591895,-68.440000,0.994279,-0.096301,-0.046214
-40.675810,1.591937,-68.416340,0.965700,-0.095822,0.241334
-40.718980,1.597739,-68.365510,0.479433,-0.027237,0.877156
-40.774030,1.594389,-68.352390,-0.310677,-0.053002,0.949037
-40.799530,1.599885,-68.366080,-0.630683,0.016130,0.775873
-40.733410,1.595400,-68.356700,0.150347,-0.037780,0.987911
-40.703550,1.592895,-68.371700,0.548442,-0.073789,0.832927
-40.714470,1.603266,-68.498700,0.622250,0.041872,-0.781698
-40.744650,1.619472,-68.490780,0.259979,0.278909,-0.924457
-40.759460,1.599426,-68.517750,0.022938,-0.007081,-0.999712
-40.707120,1.583761,-68.512750,0.618063,-0.182958,-0.764542
-40.695030,1.592281,-68.493870,0.790637,-0.089718,-0.605676
-40.695950,1.596144,-68.490100,0.812069,-0.044312,-0.581877
-40.755840,1.612726,-68.502950,0.084068,0.172022,-0.981499
-40.690280,1.581984,-68.499150,0.792950,-0.198503,-0.576044
-40.691760,1.583616,-68.499300,0.799997,-0.179020,-0.572674
-40.671250,1.588978,-68.439590,0.988899,-0.120712,0.086645
-40.673380,1.590793,-68.424540,0.966864,-0.103216,0.233496
-40.675070,1.593771,-68.443070,0.997144,-0.068327,0.032183
-40.691310,1.609401,-68.423870,0.949503,0.129500,0.285787
-40.705440,1.605866,-68.486840,0.721888,0.075838,-0.687842
-40.678620,1.589505,-68.471450,0.943774,-0.119100,-0.308391
-40.667500,1.581413,-68.451990,0.978948,-0.200719,-0.037057
-40.681160,1.581960,-68.487040,0.875246,-0.198726,-0.440967
-40.656940,1.532122,-68.400880,0.705083,-0.628063,0.329235
-40.652730,1.542784,-68.425460,0.819241,-0.550326,0.161203
-40.652500,1.542474,-68.446210,0.834313,-0.551051,0.016267
-40.651430,1.532666,-68.446900,0.777975,-0.627641,-0.028673
-40.655120,1.537648,-68.464920,0.786887,-0.592141,-0.173718
-40.655700,1.538198,-68.466780,0.794054,-0.586053,-0.161307
-40.661150,1.537499,-68.481850,0.807983,-0.567511,-0.158412
-40.679680,1.559628,-68.370850,0.683979,-0.415964,0.599288
-40.731390,1.587310,-68.350920,0.481414,-0.128594,0.867009
-40.773030,1.594309,-68.352170,0.185650,-0.004313,0.982606
-40.823770,1.591580,-68.375920,-0.786931,-0.093184,0.609964
-40.831870,1.608760,-68.431580,-0.987043,0.115744,0.111127
-40.849230,1.587464,-68.455940,-0.908874,-0.121822,-0.398884
-40.820410,1.597729,-68.493760,-0.728215,-0.027819,-0.684785
-40.820370,1.597980,-68.493480,-0.725819,-0.024810,-0.687439
-40.820890,1.597905,-68.493020,-0.726473,-0.025695,-0.686715
-40.821290,1.597874,-68.492630,-0.726936,-0.026020,-0.686212
-40.821620,1.597842,-68.492320,-0.727421,-0.026350,-0.685686
-40.821950,1.597773,-68.492040,-0.728440,-0.027106,-0.684573
-40.822230,1.597699,-68.491830,-0.729176,-0.027927,-0.683756
-40.822440,1.597635,-68.491670,-0.729776,-0.028647,-0.683086
-40.822610,1.597600,-68.491530,-0.730605,-0.029027,-0.682183
-40.822760,1.597550,-68.491420,-0.731148,-0.029593,-0.681577
-40.822920,1.597510,-68.491290,-0.732070,-0.030043,-0.680567
-40.823060,1.597481,-68.491180,-0.732946,-0.030366,-0.679609
-40.822530,1.597350,-68.491940,-0.726405,-0.031998,-0.686521
-40.822660,1.597322,-68.491840,-0.727119,-0.032300,-0.685751
-40.822750,1.597327,-68.491730,-0.727932,-0.032228,-0.684892
-40.822870,1.597303,-68.491630,-0.729055,-0.032506,-0.683683
-40.822980,1.597266,-68.491550,-0.730054,-0.032945,-0.682594
-40.823040,1.597256,-68.491490,-0.730557,-0.033057,-0.682051
-40.823100,1.597239,-68.491460,-0.730980,-0.033254,-0.681588
-40.823190,1.597242,-68.491340,-0.732120,-0.033222,-0.680366
-40.823270,1.597256,-68.491240,-0.733065,-0.033047,-0.679355
-40.823310,1.597274,-68.491160,-0.733878,-0.032835,-0.678488
-40.823420,1.597234,-68.491100,-0.734858,-0.033321,-0.677402
-40.823490,1.597238,-68.491010,-0.735716,-0.033267,-0.676473
-40.823500,1.597294,-68.490920,-0.736396,-0.032603,-0.675765
-40.823580,1.597284,-68.490840,-0.737240,-0.032704,-0.674839
-40.823680,1.597251,-68.490780,-0.738070,-0.033108,-0.673911
-40.823710,1.597269,-68.490710,-0.738688,-0.032893,-0.673244
-40.823760,1.597267,-68.490650,-0.739463,-0.032917,-0.672392
-40.823850,1.597252,-68.490570,-0.740414,-0.033094,-0.671336
-40.823950,1.597233,-68.490480,-0.741429,-0.033328,-0.670203
-40.824010,1.597245,-68.490390,-0.742341,-0.033191,-0.669200
-40.824040,1.597239,-68.490360,-0.742620,-0.033261,-0.668886
-40.824010,1.597261,-68.490360,-0.742517,-0.032993,-0.669014
-40.824000,1.597292,-68.490340,-0.742522,-0.032614,-0.669028
-40.824000,1.597291,-68.490340,-0.742476,-0.032632,-0.669078
-40.824040,1.597258,-68.490340,-0.742643,-0.033022,-0.668873
-40.824020,1.597252,-68.490370,-0.742396,-0.033087,-0.669144
-40.824020,1.597258,-68.490360,-0.742455,-0.033021,-0.669082
-40.824010,1.597276,-68.490350,-0.742618,-0.032812,-0.668910
-40.824050,1.597266,-68.490320,-0.742959,-0.032936,-0.668527
-40.824090,1.597267,-68.490260,-0.743582,-0.032920,-0.667834
-40.824160,1.597266,-68.490180,-0.744347,-0.032924,-0.666981
-40.824210,1.597255,-68.490140,-0.744798,-0.033050,-0.666471
-40.824230,1.597297,-68.490060,-0.745531,-0.032554,-0.665676
-40.824330,1.597275,-68.489970,-0.746570,-0.032823,-0.664497
-40.824430,1.597228,-68.489910,-0.747433,-0.033388,-0.663498
-40.824500,1.597235,-68.489820,-0.748192,-0.033299,-0.662646
-40.824530,1.597234,-68.489780,-0.748722,-0.033322,-0.662046
-40.824620,1.597215,-68.489700,-0.749591,-0.033547,-0.661051
-40.824660,1.597242,-68.489620,-0.750448,-0.033222,-0.660095
-40.824750,1.597243,-68.489500,-0.751458,-0.033201,-0.658945
-40.824830,1.597237,-68.489420,-0.752437,-0.033281,-0.657823
-40.824860,1.597257,-68.489350,-0.752895,-0.033027,-0.657311
-40.824910,1.597277,-68.489270,-0.753629,-0.032795,-0.656482
-40.824950,1.597311,-68.489170,-0.754482,-0.032375,-0.655521
-40.825020,1.597278,-68.489140,-0.754986,-0.032783,-0.654921
-40.825020,1.597257,-68.489170,-0.754856,-0.033034,-0.655059
-40.825030,1.597221,-68.489200,-0.754857,-0.033466,-0.655036
-40.825040,1.597201,-68.489200,-0.754872,-0.033714,-0.655005
-40.825030,1.597216,-68.489200,-0.754850,-0.033538,-0.655039
-40.825040,1.597217,-68.489190,-0.754829,-0.033518,-0.655065
-40.825070,1.597200,-68.489180,-0.755006,-0.033716,-0.654851
-40.825050,1.597194,-68.489210,-0.754740,-0.033794,-0.655154
-40.825000,1.597229,-68.489210,-0.754560,-0.033375,-0.655382
-40.825010,1.597225,-68.489210,-0.754531,-0.033412,-0.655414
-40.825000,1.597210,-68.489250,-0.754264,-0.033600,-0.655711
-40.824990,1.597210,-68.489260,-0.754194,-0.033594,-0.655791
-40.824990,1.597218,-68.489260,-0.754156,-0.033505,-0.655840
-40.824990,1.597205,-68.489270,-0.754181,-0.033662,-0.655803
-40.824990,1.597205,-68.489270,-0.754115,-0.033662,-0.655880
-40.824990,1.597199,-68.489280,-0.753939,-0.033728,-0.656078
-40.825010,1.597192,-68.489260,-0.754151,-0.033809,-0.655830
-40.825000,1.597192,-68.489270,-0.753945,-0.033811,-0.656067
-40.824950,1.597246,-68.489270,-0.753755,-0.033155,-0.656318
-40.824940,1.597248,-68.489270,-0.753679,-0.033137,-0.656407
-40.824940,1.597241,-68.489270,-0.753797,-0.033224,-0.656267
-40.824920,1.597250,-68.489300,-0.753432,-0.033112,-0.656691
-40.824880,1.597255,-68.489330,-0.753196,-0.033061,-0.656965
-40.824880,1.597238,-68.489350,-0.753008,-0.033265,-0.657171
-40.824880,1.597232,-68.489360,-0.753178,-0.033339,-0.656972
-40.834710,1.590280,-68.485400,-0.800956,-0.113069,-0.587950
-40.868760,1.528842,-68.416280,-0.729901,-0.652729,0.202952
-40.812440,1.475510,-68.520280,-0.165476,-0.937657,-0.305644
-40.791150,1.588397,-68.521350,-0.321984,-0.135425,-0.937010
-40.785610,1.591909,-68.520450,-0.290658,-0.096151,-0.951984
